-0.00426848 0.227634 0.227634 2 1 0
-0.00399541 0.225686 0.225686 2 1 0
-0.00373681 0.223732 0.223732 2 1 0
-0.00349215 0.221773 0.221773 2 1 0
-0.00326092 0.21981 0.21981 2 1 0
-0.00304257 0.217843 0.217843 2 1 0
-0.00283657 0.215872 0.215872 2 1 0
-0.00264241 0.213898 0.213898 2 1 0
-0.00245957 0.21192 0.21192 2 1 0
-0.00228753 0.20994 0.20994 2 1 0
-0.0021258 0.207958 0.207958 2 1 0
-0.00197389 0.205973 0.205973 2 1 0
-0.00183133 0.203987 0.203987 2 1 0
-0.00169764 0.201999 0.201999 2 1 0
-0.00157239 0.200009 0.200009 2 1 0
-0.00145514 0.198018 0.198018 2 1 0
-0.00134547 0.196026 0.196026 2 1 0
-0.00124297 0.194033 0.194033 2 1 0
-0.00114726 0.192039 0.192039 2 1 0
-0.00105796 0.190044 0.190044 2 1 0
-0.00097472 0.188049 0.188049 2 1 0
-0.000897188 0.186053 0.186053 2 1 0
-0.000825037 0.184056 0.184056 2 1 0
-0.000757954 0.182059 0.182059 2 1 0
-0.000695637 0.180061 0.180061 2 1 0
-0.0006378 0.178063 0.178063 2 1 0
-0.000584172 0.176065 0.176065 2 1 0
-0.000534491 0.174067 0.174067 2 1 0
-0.000488511 0.172068 0.172068 2 1 0
-0.000445997 0.170069 0.170069 2 1 0
-0.000406728 0.16807 0.16807 2 1 0
-0.000370491 0.166071 0.166071 2 1 0
-0.000337087 0.164072 0.164072 2 1 0
-0.000306328 0.162072 0.162072 2 1 0
-0.000278033 0.160073 0.160073 2 1 0
-0.000252034 0.158073 0.158073 2 1 0
-0.000228172 0.156074 0.156074 2 1 0
-0.000206296 0.154074 0.154074 2 1 0
-0.000186265 0.152074 0.152074 2 1 0
-0.000167944 0.150074 0.150074 2 1 0
-0.00015121 0.148075 0.148075 2 1 0
-0.000135943 0.146075 0.146075 2 1 0
-0.000122034 0.144075 0.144075 2 1 0
-0.000109378 0.142075 0.142075 2 1 0
-9.78788e-05 0.140075 0.140075 2 1 0
-8.74453e-05 0.138075 0.138075 2 1 0
-7.79924e-05 0.136075 0.136075 2 1 0
-6.94408e-05 0.134075 0.134075 2 1 0
-6.17165e-05 0.132075 0.132075 2 1 0
-5.47506e-05 0.130075 0.130075 2 1 0
-4.84788e-05 0.128075 0.128075 2 1 0
-4.28416e-05 0.126075 0.126075 2 1 0
-3.77835e-05 0.124075 0.124075 2 1 0
-3.32532e-05 0.122075 0.122075 2 1 0
-2.92031e-05 0.120075 0.120075 2 1 0
-2.55894e-05 0.118075 0.118075 2 1 0
-2.23712e-05 0.116075 0.116075 2 1 0
-1.95113e-05 0.114075 0.114075 2 1 0
-1.69751e-05 0.112075 0.112075 2 1 0
-1.47309e-05 0.110075 0.110075 2 1 0
-1.27496e-05 0.108075 0.108075 2 1 0
-1.10046e-05 0.106075 0.106075 2 1 0
-9.47134e-06 0.104075 0.104075 2 1 0
-8.12763e-06 0.102075 0.102075 2 1 0
-6.95313e-06 0.100075 0.100075 2 1 0
-5.92934e-06 0.0980753 0.0980753 2 1 0
-5.03948e-06 0.0960753 0.0960753 2 1 0
-4.26831e-06 0.0940753 0.0940753 2 1 0
-3.60209e-06 0.0920753 0.0920753 2 1 0
-3.02838e-06 0.0900753 0.0900753 2 1 0
-2.53601e-06 0.0880753 0.0880753 2 1 0
-2.11494e-06 0.0860753 0.0860753 2 1 0
-1.75617e-06 0.0840753 0.0840753 2 1 0
-1.45167e-06 0.0820753 0.0820753 2 1 0
-1.19426e-06 0.0800753 0.0800753 2 1 0
-9.77607e-07 0.0780753 0.0780753 2 1 0
-7.9606e-07 0.0760753 0.0760753 2 1 0
-6.44648e-07 0.0740753 0.0740753 2 1 0
-5.18996e-07 0.0720753 0.0720753 2 1 0
-4.15267e-07 0.0700753 0.0700753 2 1 0
-3.30109e-07 0.0680753 0.0680753 2 1 0
-2.60606e-07 0.0660753 0.0660753 2 1 0
-2.04233e-07 0.0640753 0.0640753 2 1 0
-1.5881e-07 0.0620753 0.0620753 2 1 0
-1.22467e-07 0.0600753 0.0600753 2 1 0
-9.36067e-08 0.0580753 0.0580753 2 1 0
-7.08711e-08 0.0560753 0.0560753 2 1 0
-5.31138e-08 0.0540753 0.0540753 2 1 0
-3.9372e-08 0.0520753 0.0520753 2 1 0
-2.88427e-08 0.0500753 0.0500753 2 1 0
-2.08611e-08 0.0480753 0.0480753 2 1 0
-1.48805e-08 0.0460753 0.0460753 2 1 0
-1.04555e-08 0.0440753 0.0440753 2 1 0
-7.22616e-09 0.0420753 0.0420753 2 1 0
-4.90467e-09 0.0400753 0.0400753 2 1 0
-3.26321e-09 0.0380753 0.0380753 2 1 0
-2.12364e-09 0.0360753 0.0360753 2 1 0
-1.3484e-09 0.0340753 0.0340753 2 1 0
-8.32846e-10 0.0320753 0.0320753 2 1 0
-4.98626e-10 0.0300753 0.0300753 2 1 0
-2.88127e-10 0.0280753 0.0280753 2 1 0
-1.59851e-10 0.0260753 0.0260753 2 1 0
-8.45952e-11 0.0240753 0.0240753 2 1 0
-4.23559e-11 0.0220753 0.0220753 2 1 0
-1.98538e-11 0.0200753 0.0200753 2 1 0
-8.59243e-12 0.0180753 0.0180753 2 1 0
-3.36967e-12 0.0160753 0.0160753 2 1 0
-1.16642e-12 0.0140753 0.0140753 2 1 0
-3.42971e-13 0.0120753 0.0120753 2 1 0
-8.0726e-14 0.0100753 0.0100753 2 1 0
-1.3775e-14 0.00807526 0.00807526 2 1 0
-1.41656e-15 0.00607526 0.00607526 2 1 0
-5.81875e-17 0.00407526 0.00407526 2 1 0
-2.63652e-19 0.00207526 0.00207526 2 1 0
0 7.52592e-05 7.52592e-05 2 1 0
0 7.52594e-05 7.52594e-05 2 1 0
-1.44935e-19 -0.00192474 -0.00192474 1 1 0
-4.34061e-17 -0.00392474 -0.00392474 1 1 0
-1.17296e-15 -0.00592474 -0.00592474 1 1 0
-1.20412e-14 -0.00792474 -0.00792474 1 1 0
-7.30136e-14 -0.00992474 -0.00992474 1 1 0
-3.17762e-13 -0.0119247 -0.0119247 1 1 0
-1.10069e-12 -0.0139247 -0.0139247 1 1 0
-3.22702e-12 -0.0159247 -0.0159247 1 1 0
-8.33106e-12 -0.0179247 -0.0179247 1 1 0
-1.94568e-11 -0.0199247 -0.0199247 1 1 0
-4.19041e-11 -0.0219247 -0.0219247 1 1 0
-8.44126e-11 -0.0239247 -0.0239247 1 1 0
-1.60765e-10 -0.0259247 -0.0259247 1 1 0
-2.91901e-10 -0.0279247 -0.0279247 1 1 0
-5.0864e-10 -0.0299247 -0.0299247 1 1 0
-8.55123e-10 -0.0319247 -0.0319247 1 1 0
-1.3931e-09 -0.0339247 -0.0339247 1 1 0
-2.20719e-09 -0.0359247 -0.0359247 1 1 0
-3.41121e-09 -0.0379247 -0.0379247 1 1 0
-5.15585e-09 -0.0399247 -0.0399247 1 1 0
-7.63767e-09 -0.0419247 -0.0419247 1 1 0
-1.11098e-08 -0.0439247 -0.0439247 1 1 0
-1.58941e-08 -0.0459247 -0.0459247 1 1 0
-2.2396e-08 -0.0479247 -0.0479247 1 1 0
-3.11205e-08 -0.0499247 -0.0499247 1 1 0
-4.26915e-08 -0.0519247 -0.0519247 1 1 0
-5.7873e-08 -0.0539247 -0.0539247 1 1 0
-7.75937e-08 -0.0559247 -0.0559247 1 1 0
-1.02974e-07 -0.0579247 -0.0579247 1 1 0
-1.35359e-07 -0.0599247 -0.0599247 1 1 0
-1.76347e-07 -0.0619247 -0.0619247 1 1 0
-2.27837e-07 -0.0639247 -0.0639247 1 1 0
-2.92062e-07 -0.0659247 -0.0659247 1 1 0
-3.71643e-07 -0.0679247 -0.0679247 1 1 0
-4.69636e-07 -0.0699247 -0.0699247 1 1 0
-5.89593e-07 -0.0719247 -0.0719247 1 1 0
-7.3562e-07 -0.0739247 -0.0739247 1 1 0
-9.12452e-07 -0.0759247 -0.0759247 1 1 0
-1.12552e-06 -0.0779247 -0.0779247 1 1 0
-1.38104e-06 -0.0799247 -0.0799247 1 1 0
-1.68608e-06 -0.0819247 -0.0819247 1 1 0
-2.04871e-06 -0.0839247 -0.0839247 1 1 0
-2.47803e-06 -0.0859247 -0.0859247 1 1 0
-2.98434e-06 -0.0879247 -0.0879247 1 1 0
-3.57924e-06 -0.0899247 -0.0899247 1 1 0
-4.27576e-06 -0.0919247 -0.0919247 1 1 0
-5.08848e-06 -0.0939247 -0.0939247 1 1 0
-6.03374e-06 -0.0959247 -0.0959247 1 1 0
-7.12972e-06 -0.0979247 -0.0979247 1 1 0
-8.39668e-06 -0.0999247 -0.0999247 1 1 0
-9.8571e-06 -0.101925 -0.101925 1 1 0
-1.15359e-05 -0.103925 -0.103925 1 1 0
-1.34606e-05 -0.105925 -0.105925 1 1 0
-1.56617e-05 -0.107925 -0.107925 1 1 0
-1.81726e-05 -0.109925 -0.109925 1 1 0
-2.10302e-05 -0.111925 -0.111925 1 1 0
-2.42749e-05 -0.113925 -0.113925 1 1 0
-2.79512e-05 -0.115925 -0.115925 1 1 0
-3.21076e-05 -0.117925 -0.117925 1 1 0
-3.67972e-05 -0.119925 -0.119925 1 1 0
-4.20778e-05 -0.121925 -0.121925 1 1 0
-4.80125e-05 -0.123925 -0.123925 1 1 0
-5.46701e-05 -0.125925 -0.125925 1 1 0
-6.21251e-05 -0.127925 -0.127925 1 1 0
-7.04584e-05 -0.129925 -0.129925 1 1 0
-7.9758e-05 -0.131925 -0.131925 1 1 0
-9.01187e-05 -0.133925 -0.133925 1 1 0
-0.000101643 -0.135924 -0.135924 1 1 0
-0.000114443 -0.137924 -0.137924 1 1 0
-0.000128637 -0.139924 -0.139924 1 1 0
-0.000144355 -0.141924 -0.141924 1 1 0
-0.000161736 -0.143924 -0.143924 1 1 0
-0.000180928 -0.145924 -0.145924 1 1 0
-0.000202093 -0.147924 -0.147924 1 1 0
-0.000225403 -0.149923 -0.149923 1 1 0
-0.000251042 -0.151923 -0.151923 1 1 0
-0.000279208 -0.153923 -0.153923 1 1 0
-0.000310113 -0.155922 -0.155922 1 1 0
-0.000343984 -0.157922 -0.157922 1 1 0
-0.000381061 -0.159921 -0.159921 1 1 0
-0.000421603 -0.161921 -0.161921 1 1 0
-0.000465885 -0.16392 -0.16392 1 1 0
-0.0005142 -0.165919 -0.165919 1 1 0
-0.000566858 -0.167918 -0.167918 1 1 0
-0.000624193 -0.169916 -0.169916 1 1 0
-0.000686555 -0.171915 -0.171915 1 1 0
-0.000754318 -0.173913 -0.173913 1 1 0
-0.000827878 -0.17591 -0.17591 1 1 0
-0.000907653 -0.177908 -0.177908 1 1 0
-0.000994087 -0.179905 -0.179905 1 1 0
-0.00108765 -0.181901 -0.181901 1 1 0
-0.00118883 -0.183897 -0.183897 1 1 0
-0.00129815 -0.185892 -0.185892 1 1 0
-0.00141617 -0.187886 -0.187886 1 1 0
-0.00154345 -0.189879 -0.189879 1 1 0
-0.0016806 -0.191871 -0.191871 1 1 0
-0.00182826 -0.193862 -0.193862 1 1 0
-0.00198708 -0.195852 -0.195852 1 1 0
-0.00215776 -0.197839 -0.197839 1 1 0
-0.00234102 -0.199826 -0.199826 1 1 0
-0.00253761 -0.20181 -0.20181 1 1 0
-0.0027483 -0.203791 -0.203791 1 1 0
-0.0029739 -0.20577 -0.20577 1 1 0
-0.00321523 -0.207746 -0.207746 1 1 0
-0.00347315 -0.209718 -0.209718 1 1 0
-0.00374852 -0.211687 -0.211687 1 1 0
-0.00404223 -0.213652 -0.213652 1 1 0
-0.00435519 -0.215611 -0.215611 1 1 0
-0.00468829 -0.217565 -0.217565 1 1 0
-0.00504245 -0.219514 -0.219514 1 1 0
-0.00541858 -0.221455 -0.221455 1 1 0
-0.00581757 -0.22339 -0.22339 1 1 0
-0.00624032 -0.225316 -0.225316 1 1 0
-0.00668768 -0.227233 -0.227233 1 1 0
-0.00716047 -0.229141 -0.229141 1 1 0
-0.00765948 -0.231038 -0.231038 1 1 0
-0.00818545 -0.232924 -0.232924 1 1 0
-0.00873904 -0.234797 -0.234797 1 1 0
-0.00932088 -0.236656 -0.236656 1 1 0
-0.00993149 -0.238501 -0.238501 1 1 0
-0.0105713 -0.24033 -0.24033 1 1 0
-0.0112407 -0.242143 -0.242143 1 1 0
-0.0119399 -0.243938 -0.243938 1 1 0
-0.0126692 -0.245714 -0.245714 1 1 0
-0.0134285 -0.247471 -0.247471 1 1 0
-0.0142178 -0.249207 -0.249207 1 1 0
-0.015037 -0.250922 -0.250922 1 1 0
-0.0158858 -0.252615 -0.252615 1 1 0
-0.0167639 -0.254284 -0.254284 1 1 0
-0.0176709 -0.25593 -0.25593 1 1 0
-0.0186062 -0.257552 -0.257552 1 1 0
-0.0195693 -0.259149 -0.259149 1 1 0
-0.0205596 -0.26072 -0.26072 1 1 0
-0.0215762 -0.262267 -0.262267 1 1 0
-0.0226186 -0.263787 -0.263787 1 1 0
-0.0236858 -0.265282 -0.265282 1 1 0
-0.0247771 -0.26675 -0.26675 1 1 0
-0.0258916 -0.268193 -0.268193 1 1 0
-0.0270286 -0.26961 -0.26961 1 1 0
-0.0281871 -0.271001 -0.271001 1 1 0
-0.0293663 -0.272367 -0.272367 1 1 0
-0.0305655 -0.273707 -0.273707 1 1 0
-0.0317836 -0.275023 -0.275023 1 1 0
-0.0330201 -0.276314 -0.276314 1 1 0
-0.034274 -0.277581 -0.277581 1 1 0
-0.0355446 -0.278824 -0.278824 1 1 0
-0.0368312 -0.280044 -0.280044 1 1 0
-0.0381331 -0.281242 -0.281242 1 1 0
-0.0394496 -0.282417 -0.282417 1 1 0
-0.0407801 -0.283571 -0.283571 1 1 0
-0.0421239 -0.284703 -0.284703 1 1 0
-0.0434804 -0.285815 -0.285815 1 1 0
-0.0448491 -0.286906 -0.286906 1 1 0
-0.0462295 -0.287978 -0.287978 1 1 0
-0.047621 -0.289031 -0.289031 1 1 0
-0.0490232 -0.290065 -0.290065 1 1 0
-0.0504355 -0.291081 -0.291081 1 1 0
-0.0518577 -0.29208 -0.29208 1 1 0
-0.0532891 -0.293061 -0.293061 1 1 0
-0.0547296 -0.294026 -0.294026 1 1 0
-0.0561786 -0.294974 -0.294974 1 1 0
-0.0576359 -0.295907 -0.295907 1 1 0
-0.0591011 -0.296825 -0.296825 1 1 0
-0.0605739 -0.297727 -0.297727 1 1 0
-0.0620541 -0.298616 -0.298616 1 1 0
-0.0635412 -0.29949 -0.29949 1 1 0
-0.0650352 -0.300351 -0.300351 1 1 0
-0.0665357 -0.301198 -0.301198 1 1 0
-0.0680424 -0.302032 -0.302032 1 1 0
-0.0695552 -0.302854 -0.302854 1 1 0
-0.0710739 -0.303664 -0.303664 1 1 0
-0.0725982 -0.304462 -0.304462 1 1 0
-0.074128 -0.305249 -0.305249 1 1 0
-0.0756631 -0.306024 -0.306024 1 1 0
-0.0772033 -0.306788 -0.306788 1 1 0
-0.0787484 -0.307542 -0.307542 1 1 0
-0.0802983 -0.308285 -0.308285 1 1 0
-0.0818529 -0.309018 -0.309018 1 1 0
-0.083412 -0.309742 -0.309742 1 1 0
-0.0849755 -0.310456 -0.310456 1 1 0
-0.0865432 -0.311161 -0.311161 1 1 0
-0.088115 -0.311856 -0.311856 1 1 0
-0.0896909 -0.312543 -0.312543 1 1 0
-0.0912707 -0.313221 -0.313221 1 1 0
-0.0928542 -0.313891 -0.313891 1 1 0
-0.0944415 -0.314553 -0.314553 1 1 0
-0.0960324 -0.315207 -0.315207 1 1 0
-0.0976268 -0.315853 -0.315853 1 1 0
-0.0992247 -0.316491 -0.316491 1 1 0
-0.100826 -0.317122 -0.317122 1 1 0
-0.10243 -0.317746 -0.317746 1 1 0
-0.104038 -0.318362 -0.318362 1 1 0
-0.105649 -0.318972 -0.318972 1 1 0
-0.107263 -0.319575 -0.319575 1 1 0
-0.10888 -0.320171 -0.320171 1 1 0
-0.110499 -0.320761 -0.320761 1 1 0
-0.112122 -0.321345 -0.321345 1 1 0
-0.113747 -0.321923 -0.321923 1 1 0
-0.115376 -0.322494 -0.322494 1 1 0
-0.117006 -0.32306 -0.32306 1 1 0
-0.11864 -0.32362 -0.32362 1 1 0
-0.120276 -0.324174 -0.324174 1 1 0
-0.121915 -0.324723 -0.324723 1 1 0
-0.123556 -0.325266 -0.325266 1 1 0
-0.1252 -0.325804 -0.325804 1 1 0
-0.126846 -0.326337 -0.326337 1 1 0
-0.128494 -0.326865 -0.326865 1 1 0
-0.130145 -0.327387 -0.327387 1 1 0
-0.131798 -0.327905 -0.327905 1 1 0
-0.133453 -0.328419 -0.328419 1 1 0
-0.135111 -0.328927 -0.328927 1 1 0
-0.13677 -0.329431 -0.329431 1 1 0
-0.138432 -0.32993 -0.32993 1 1 0
-0.140096 -0.330425 -0.330425 1 1 0
-0.141762 -0.330916 -0.330916 1 1 0
-0.14343 -0.331403 -0.331403 1 1 0
-0.145101 -0.331885 -0.331885 1 1 0
-0.146773 -0.332363 -0.332363 1 1 0
-0.148447 -0.332837 -0.332837 1 1 0
-0.150123 -0.333307 -0.333307 1 1 0
-0.151801 -0.333774 -0.333774 1 1 0
-0.153481 -0.334236 -0.334236 1 1 0
-0.155163 -0.334695 -0.334695 1 1 0
-0.156846 -0.335151 -0.335151 1 1 0
-0.158532 -0.335602 -0.335602 1 1 0
-0.160219 -0.33605 -0.33605 1 1 0
-0.161908 -0.336495 -0.336495 1 1 0
-0.163598 -0.336936 -0.336936 1 1 0
-0.165291 -0.337374 -0.337374 1 1 0
-0.166985 -0.337808 -0.337808 1 1 0
-0.168681 -0.33824 -0.33824 1 1 0
-0.170379 -0.338668 -0.338668 1 1 0
-0.172078 -0.339093 -0.339093 1 1 0
-0.173779 -0.339514 -0.339514 1 1 0
-0.175481 -0.339933 -0.339933 1 1 0
-0.177185 -0.340349 -0.340349 1 1 0
-0.178891 -0.340762 -0.340762 1 1 0
-0.180598 -0.341172 -0.341172 1 1 0
-0.182307 -0.341579 -0.341579 1 1 0
-0.184017 -0.341983 -0.341983 1 1 0
-0.185729 -0.342385 -0.342385 1 1 0
-0.187443 -0.342784 -0.342784 1 1 0
-0.189157 -0.34318 -0.34318 1 1 0
-0.190874 -0.343573 -0.343573 1 1 0
-0.192592 -0.343964 -0.343964 1 1 0
-0.194311 -0.344353 -0.344353 1 1 0
-0.196032 -0.344738 -0.344738 1 1 0
-0.197754 -0.345122 -0.345122 1 1 0
-0.199477 -0.345503 -0.345503 1 1 0
-0.201202 -0.345881 -0.345881 1 1 0
-0.202929 -0.346257 -0.346257 1 1 0
-0.204656 -0.346631 -0.346631 1 1 0
-0.206385 -0.347002 -0.347002 1 1 0
-0.208116 -0.347371 -0.347371 1 1 0
-0.209848 -0.347738 -0.347738 1 1 0
-0.211581 -0.348103 -0.348103 1 1 0
-0.213315 -0.348465 -0.348465 1 1 0
-0.215051 -0.348826 -0.348826 1 1 0
-0.216788 -0.349184 -0.349184 1 1 0
-0.218527 -0.34954 -0.34954 1 1 0
-0.220266 -0.349894 -0.349894 1 1 0
-0.222007 -0.350246 -0.350246 1 1 0
-0.223749 -0.350596 -0.350596 1 1 0
-0.225493 -0.350944 -0.350944 1 1 0
-0.227237 -0.35129 -0.35129 1 1 0
-0.228983 -0.351634 -0.351634 1 1 0
-0.230731 -0.351976 -0.351976 1 1 0
-0.232479 -0.352316 -0.352316 1 1 0
-0.234229 -0.352654 -0.352654 1 1 0
-0.235979 -0.352991 -0.352991 1 1 0
-0.237731 -0.353325 -0.353325 1 1 0
-0.239485 -0.353658 -0.353658 1 1 0
-0.241239 -0.353989 -0.353989 1 1 0
-0.242994 -0.354318 -0.354318 1 1 0
-0.244751 -0.354646 -0.354646 1 1 0
-0.246509 -0.354972 -0.354972 1 1 0
-0.248268 -0.355296 -0.355296 1 1 0
-0.250028 -0.355618 -0.355618 1 1 0
-0.251789 -0.355939 -0.355939 1 1 0
-0.253552 -0.356258 -0.356258 1 1 0
-0.255315 -0.356576 -0.356576 1 1 0
-0.25708 -0.356892 -0.356892 1 1 0
-0.258846 -0.357206 -0.357206 1 1 0
-0.260613 -0.357519 -0.357519 1 1 0
-0.262381 -0.35783 -0.35783 1 1 0
-0.26415 -0.358139 -0.358139 1 1 0
-0.26592 -0.358447 -0.358447 1 1 0
-0.267691 -0.358754 -0.358754 1 1 0
-0.269463 -0.359059 -0.359059 1 1 0
-0.271237 -0.359363 -0.359363 1 1 0
-0.273011 -0.359665 -0.359665 1 1 0
-0.274787 -0.359966 -0.359966 1 1 0
-0.276563 -0.360265 -0.360265 1 1 0
-0.278341 -0.360563 -0.360563 1 1 0
-0.280119 -0.36086 -0.36086 1 1 0
-0.281899 -0.361155 -0.361155 1 1 0
-0.28368 -0.361449 -0.361449 1 1 0
-0.285461 -0.361741 -0.361741 1 1 0
-0.287244 -0.362032 -0.362032 1 1 0
-0.289028 -0.362322 -0.362322 1 1 0
-0.290812 -0.36261 -0.36261 1 1 0
-0.292598 -0.362898 -0.362898 1 1 0
-0.294385 -0.363183 -0.363183 1 1 0
-0.296173 -0.363468 -0.363468 1 1 0
-0.297961 -0.363751 -0.363751 1 1 0
-0.299751 -0.364033 -0.364033 1 1 0
-0.301542 -0.364314 -0.364314 1 1 0
-0.303333 -0.364594 -0.364594 1 1 0
-0.305126 -0.364872 -0.364872 1 1 0
-0.30692 -0.365149 -0.365149 1 1 0
-0.308714 -0.365425 -0.365425 1 1 0
-0.31051 -0.3657 -0.3657 1 1 0
-0.312306 -0.365974 -0.365974 1 1 0
-0.314104 -0.366246 -0.366246 1 1 0
-0.315902 -0.366518 -0.366518 1 1 0
-0.317701 -0.366788 -0.366788 1 1 0
-0.319502 -0.367057 -0.367057 1 1 0
-0.321303 -0.367325 -0.367325 1 1 0
-0.323105 -0.367592 -0.367592 1 1 0
-0.324908 -0.367857 -0.367857 1 1 0
-0.326712 -0.368122 -0.368122 1 1 0
-0.328517 -0.368385 -0.368385 1 1 0
-0.330323 -0.368648 -0.368648 1 1 0
-0.332129 -0.368909 -0.368909 1 1 0
-0.333937 -0.369169 -0.369169 1 1 0
-0.335746 -0.369429 -0.369429 1 1 0
-0.337555 -0.369687 -0.369687 1 1 0
-0.339366 -0.369944 -0.369944 1 1 0
-0.341177 -0.3702 -0.3702 1 1 0
-0.342989 -0.370455 -0.370455 1 1 0
-0.344802 -0.370709 -0.370709 1 1 0
-0.346616 -0.370962 -0.370962 1 1 0
-0.348431 -0.371215 -0.371215 1 1 0
-0.350247 -0.371466 -0.371466 1 1 0
-0.352063 -0.371716 -0.371716 1 1 0
-0.353881 -0.371965 -0.371965 1 1 0
-0.355699 -0.372213 -0.372213 1 1 0
-0.357518 -0.37246 -0.37246 1 1 0
-0.359338 -0.372707 -0.372707 1 1 0
-0.361159 -0.372952 -0.372952 1 1 0
-0.362981 -0.373196 -0.373196 1 1 0
-0.364804 -0.37344 -0.37344 1 1 0
-0.366627 -0.373682 -0.373682 1 1 0
-0.368452 -0.373924 -0.373924 1 1 0
-0.370277 -0.374165 -0.374165 1 1 0
-0.372103 -0.374404 -0.374404 1 1 0
-0.37393 -0.374643 -0.374643 1 1 0
-0.375758 -0.374881 -0.374881 1 1 0
-0.377586 -0.375118 -0.375118 1 1 0
-0.379416 -0.375355 -0.375355 1 1 0
-0.381246 -0.37559 -0.37559 1 1 0
-0.383077 -0.375824 -0.375824 1 1 0
-0.384909 -0.376058 -0.376058 1 1 0
-0.386742 -0.376291 -0.376291 1 1 0
-0.388575 -0.376523 -0.376523 1 1 0
-0.39041 -0.376754 -0.376754 1 1 0
-0.392245 -0.376984 -0.376984 1 1 0
-0.394081 -0.377213 -0.377213 1 1 0
-0.395918 -0.377442 -0.377442 1 1 0
-0.397756 -0.377669 -0.377669 1 1 0
-0.399594 -0.377896 -0.377896 1 1 0
-0.401434 -0.378122 -0.378122 1 1 0
-0.403274 -0.378347 -0.378347 1 1 0
-0.405115 -0.378572 -0.378572 1 1 0
-0.406957 -0.378795 -0.378795 1 1 0
-0.408799 -0.379018 -0.379018 1 1 0
-0.410642 -0.37924 -0.37924 1 1 0
-0.412487 -0.379461 -0.379461 1 1 0
-0.414331 -0.379682 -0.379682 1 1 0
-0.416177 -0.379901 -0.379901 1 1 0
-0.418024 -0.38012 -0.38012 1 1 0
-0.419871 -0.380338 -0.380338 1 1 0
-0.421719 -0.380555 -0.380555 1 1 0
-0.423568 -0.380772 -0.380772 1 1 0
-0.425418 -0.380988 -0.380988 1 1 0
-0.427268 -0.381203 -0.381203 1 1 0
-0.429119 -0.381417 -0.381417 1 1 0
-0.430971 -0.38163 -0.38163 1 1 0
-0.432824 -0.381843 -0.381843 1 1 0
-0.434678 -0.382055 -0.382055 1 1 0
-0.436532 -0.382266 -0.382266 1 1 0
-0.438387 -0.382477 -0.382477 1 1 0
-0.440243 -0.382686 -0.382686 1 1 0
-0.442099 -0.382895 -0.382895 1 1 0
-0.443957 -0.383104 -0.383104 1 1 0
-0.445815 -0.383311 -0.383311 1 1 0
-0.447674 -0.383518 -0.383518 1 1 0
-0.449533 -0.383724 -0.383724 1 1 0
-0.451394 -0.38393 -0.38393 1 1 0
-0.453255 -0.384134 -0.384134 1 1 0
-0.455117 -0.384338 -0.384338 1 1 0
-0.456979 -0.384542 -0.384542 1 1 0
-0.458843 -0.384744 -0.384744 1 1 0
-0.460707 -0.384946 -0.384946 1 1 0
-0.462572 -0.385147 -0.385147 1 1 0
-0.464437 -0.385348 -0.385348 1 1 0
-0.466303 -0.385548 -0.385548 1 1 0
-0.468171 -0.385747 -0.385747 1 1 0
-0.470038 -0.385945 -0.385945 1 1 0
-0.471907 -0.386143 -0.386143 1 1 0
-0.473776 -0.38634 -0.38634 1 1 0
-0.475646 -0.386536 -0.386536 1 1 0
-0.477517 -0.386732 -0.386732 1 1 0
-0.479388 -0.386927 -0.386927 1 1 0
-0.48126 -0.387122 -0.387122 1 1 0
-0.483133 -0.387315 -0.387315 1 1 0
-0.485006 -0.387508 -0.387508 1 1 0
-0.486881 -0.387701 -0.387701 1 1 0
-0.488755 -0.387892 -0.387892 1 1 0
-0.490631 -0.388084 -0.388084 1 1 0
-0.492507 -0.388274 -0.388274 1 1 0
-0.494385 -0.388464 -0.388464 1 1 0
-0.496262 -0.388653 -0.388653 1 1 0
-0.498141 -0.388841 -0.388841 1 1 0
-0.50002 -0.389029 -0.389029 1 1 0
-0.5019 -0.389217 -0.389217 1 1 0
-0.50378 -0.389403 -0.389403 1 1 0
-0.505661 -0.389589 -0.389589 1 1 0
-0.507543 -0.389774 -0.389774 1 1 0
-0.509426 -0.389959 -0.389959 1 1 0
-0.511309 -0.390143 -0.390143 1 1 0
-0.513193 -0.390327 -0.390327 1 1 0
-0.515077 -0.390509 -0.390509 1 1 0
-0.516963 -0.390692 -0.390692 1 1 0
-0.518849 -0.390873 -0.390873 1 1 0
-0.520735 -0.391054 -0.391054 1 1 0
-0.522622 -0.391235 -0.391235 1 1 0
-0.52451 -0.391414 -0.391414 1 1 0
-0.526399 -0.391593 -0.391593 1 1 0
-0.528288 -0.391772 -0.391772 1 1 0
-0.530178 -0.39195 -0.39195 1 1 0
-0.532069 -0.392127 -0.392127 1 1 0
-0.53396 -0.392304 -0.392304 1 1 0
-0.535852 -0.39248 -0.39248 1 1 0
-0.537744 -0.392656 -0.392656 1 1 0
-0.539637 -0.392831 -0.392831 1 1 0
-0.541531 -0.393005 -0.393005 1 1 0
-0.543425 -0.393179 -0.393179 1 1 0
-0.54532 -0.393352 -0.393352 1 1 0
-0.547216 -0.393525 -0.393525 1 1 0
-0.549112 -0.393697 -0.393697 1 1 0
-0.551009 -0.393868 -0.393868 1 1 0
-0.552907 -0.394039 -0.394039 1 1 0
-0.554805 -0.394209 -0.394209 1 1 0
-0.556704 -0.394379 -0.394379 1 1 0
-0.558603 -0.394548 -0.394548 1 1 0
-0.560503 -0.394717 -0.394717 1 1 0
-0.562404 -0.394885 -0.394885 1 1 0
-0.564305 -0.395052 -0.395052 1 1 0
-0.566207 -0.395219 -0.395219 1 1 0
-0.568109 -0.395385 -0.395385 1 1 0
-0.570012 -0.395551 -0.395551 1 1 0
-0.571916 -0.395716 -0.395716 1 1 0
-0.57382 -0.395881 -0.395881 1 1 0
-0.575725 -0.396045 -0.396045 1 1 0
-0.57763 -0.396209 -0.396209 1 1 0
-0.579536 -0.396372 -0.396372 1 1 0
-0.581443 -0.396534 -0.396534 1 1 0
-0.58335 -0.396696 -0.396696 1 1 0
-0.585258 -0.396857 -0.396857 1 1 0
-0.587166 -0.397018 -0.397018 1 1 0
-0.589075 -0.397179 -0.397179 1 1 0
-0.590984 -0.397338 -0.397338 1 1 0
-0.592894 -0.397498 -0.397498 1 1 0
-0.594805 -0.397656 -0.397656 1 1 0
-0.596716 -0.397814 -0.397814 1 1 0
-0.598628 -0.397972 -0.397972 1 1 0
-0.60054 -0.398129 -0.398129 1 1 0
-0.602453 -0.398286 -0.398286 1 1 0
-0.604366 -0.398442 -0.398442 1 1 0
-0.60628 -0.398597 -0.398597 1 1 0
-0.608194 -0.398752 -0.398752 1 1 0
-0.610109 -0.398907 -0.398907 1 1 0
-0.612025 -0.399061 -0.399061 1 1 0
-0.613941 -0.399214 -0.399214 1 1 0
-0.615857 -0.399367 -0.399367 1 1 0
-0.617774 -0.39952 -0.39952 1 1 0
-0.619692 -0.399672 -0.399672 1 1 0
-0.62161 -0.399823 -0.399823 1 1 0
-0.623529 -0.399974 -0.399974 1 1 0
-0.625448 -0.400125 -0.400125 1 1 0
-0.627368 -0.400275 -0.400275 1 1 0
-0.629288 -0.400424 -0.400424 1 1 0
-0.631208 -0.400573 -0.400573 1 1 0
-0.63313 -0.400721 -0.400721 1 1 0
-0.635051 -0.400869 -0.400869 1 1 0
-0.636974 -0.401017 -0.401017 1 1 0
-0.638896 -0.401164 -0.401164 1 1 0
-0.640819 -0.40131 -0.40131 1 1 0
-0.642743 -0.401456 -0.401456 1 1 0
-0.644667 -0.401602 -0.401602 1 1 0
-0.646592 -0.401747 -0.401747 1 1 0
-0.648517 -0.401892 -0.401892 1 1 0
-0.650443 -0.402036 -0.402036 1 1 0
-0.652369 -0.402179 -0.402179 1 1 0
-0.654295 -0.402323 -0.402323 1 1 0
-0.656222 -0.402465 -0.402465 1 1 0
-0.65815 -0.402608 -0.402608 1 1 0
-0.660078 -0.402749 -0.402749 1 1 0
-0.662006 -0.402891 -0.402891 1 1 0
-0.663935 -0.403032 -0.403032 1 1 0
-0.665865 -0.403172 -0.403172 1 1 0
-0.667794 -0.403312 -0.403312 1 1 0
-0.669725 -0.403451 -0.403451 1 1 0
-0.671655 -0.40359 -0.40359 1 1 0
-0.673586 -0.403729 -0.403729 1 1 0
-0.675518 -0.403867 -0.403867 1 1 0
-0.67745 -0.404005 -0.404005 1 1 0
-0.679382 -0.404142 -0.404142 1 1 0
-0.681315 -0.404279 -0.404279 1 1 0
-0.683249 -0.404415 -0.404415 1 1 0
-0.685182 -0.404551 -0.404551 1 1 0
-0.687117 -0.404687 -0.404687 1 1 0
-0.689051 -0.404822 -0.404822 1 1 0
-0.690986 -0.404956 -0.404956 1 1 0
-0.692922 -0.40509 -0.40509 1 1 0
-0.694857 -0.405224 -0.405224 1 1 0
-0.696794 -0.405357 -0.405357 1 1 0
-0.69873 -0.40549 -0.40549 1 1 0
-0.700667 -0.405623 -0.405623 1 1 0
-0.702605 -0.405755 -0.405755 1 1 0
-0.704543 -0.405886 -0.405886 1 1 0
-0.706481 -0.406018 -0.406018 1 1 0
-0.70842 -0.406148 -0.406148 1 1 0
-0.710359 -0.406279 -0.406279 1 1 0
-0.712298 -0.406409 -0.406409 1 1 0
-0.714238 -0.406538 -0.406538 1 1 0
-0.716178 -0.406667 -0.406667 1 1 0
-0.718119 -0.406796 -0.406796 1 1 0
-0.72006 -0.406924 -0.406924 1 1 0
-0.722001 -0.407052 -0.407052 1 1 0
-0.723943 -0.40718 -0.40718 1 1 0
-0.725885 -0.407307 -0.407307 1 1 0
-0.727827 -0.407434 -0.407434 1 1 0
-0.72977 -0.40756 -0.40756 1 1 0
-0.731713 -0.407686 -0.407686 1 1 0
-0.733657 -0.407812 -0.407812 1 1 0
-0.7356 -0.407937 -0.407937 1 1 0
-0.737545 -0.408061 -0.408061 1 1 0
-0.739489 -0.408186 -0.408186 1 1 0
-0.741434 -0.40831 -0.40831 1 1 0
-0.743379 -0.408433 -0.408433 1 1 0
-0.745325 -0.408557 -0.408557 1 1 0
-0.747271 -0.408679 -0.408679 1 1 0
-0.749217 -0.408802 -0.408802 1 1 0
-0.751164 -0.408924 -0.408924 1 1 0
-0.753111 -0.409046 -0.409046 1 1 0
-0.755058 -0.409167 -0.409167 1 1 0
-0.757006 -0.409288 -0.409288 1 1 0
-0.758954 -0.409409 -0.409409 1 1 0
-0.760902 -0.409529 -0.409529 1 1 0
-0.762851 -0.409649 -0.409649 1 1 0
-0.7648 -0.409768 -0.409768 1 1 0
-0.766749 -0.409887 -0.409887 1 1 0
-0.768699 -0.410006 -0.410006 1 1 0
-0.770648 -0.410125 -0.410125 1 1 0
-0.772599 -0.410243 -0.410243 1 1 0
-0.774549 -0.41036 -0.41036 1 1 0
-0.7765 -0.410478 -0.410478 1 1 0
-0.778451 -0.410595 -0.410595 1 1 0
-0.780403 -0.410711 -0.410711 1 1 0
-0.782354 -0.410828 -0.410828 1 1 0
-0.784306 -0.410944 -0.410944 1 1 0
-0.786259 -0.411059 -0.411059 1 1 0
-0.788211 -0.411175 -0.411175 1 1 0
-0.790164 -0.411289 -0.411289 1 1 0
-0.792117 -0.411404 -0.411404 1 1 0
-0.794071 -0.411518 -0.411518 1 1 0
-0.796024 -0.411632 -0.411632 1 1 0
-0.797978 -0.411746 -0.411746 1 1 0
-0.799933 -0.411859 -0.411859 1 1 0
-0.801887 -0.411972 -0.411972 1 1 0
-0.803842 -0.412085 -0.412085 1 1 0
-0.805797 -0.412197 -0.412197 1 1 0
-0.807753 -0.412309 -0.412309 1 1 0
-0.809708 -0.412421 -0.412421 1 1 0
-0.811664 -0.412532 -0.412532 1 1 0
-0.81362 -0.412643 -0.412643 1 1 0
-0.815577 -0.412753 -0.412753 1 1 0
-0.817534 -0.412864 -0.412864 1 1 0
-0.819491 -0.412974 -0.412974 1 1 0
-0.821448 -0.413084 -0.413084 1 1 0
-0.823405 -0.413193 -0.413193 1 1 0
-0.825363 -0.413302 -0.413302 1 1 0
-0.827321 -0.413411 -0.413411 1 1 0
-0.829279 -0.413519 -0.413519 1 1 0
-0.831238 -0.413628 -0.413628 1 1 0
-0.833197 -0.413735 -0.413735 1 1 0
-0.835155 -0.413843 -0.413843 1 1 0
-0.837115 -0.41395 -0.41395 1 1 0
-0.839074 -0.414057 -0.414057 1 1 0
-0.841034 -0.414164 -0.414164 1 1 0
-0.842994 -0.41427 -0.41427 1 1 0
-0.844954 -0.414376 -0.414376 1 1 0
-0.846914 -0.414482 -0.414482 1 1 0
-0.848875 -0.414588 -0.414588 1 1 0
-0.850836 -0.414693 -0.414693 1 1 0
-0.852797 -0.414798 -0.414798 1 1 0
-0.854758 -0.414903 -0.414903 1 1 0
-0.85672 -0.415007 -0.415007 1 1 0
-0.858681 -0.415111 -0.415111 1 1 0
-0.860643 -0.415215 -0.415215 1 1 0
-0.862606 -0.415318 -0.415318 1 1 0
-0.864568 -0.415422 -0.415422 1 1 0
-0.866531 -0.415524 -0.415524 1 1 0
-0.868493 -0.415627 -0.415627 1 1 0
-0.870457 -0.41573 -0.41573 1 1 0
-0.87242 -0.415832 -0.415832 1 1 0
-0.874383 -0.415934 -0.415934 1 1 0
-0.876347 -0.416035 -0.416035 1 1 0
-0.878311 -0.416136 -0.416136 1 1 0
-0.880275 -0.416237 -0.416237 1 1 0
-0.882239 -0.416338 -0.416338 1 1 0
-0.884204 -0.416439 -0.416439 1 1 0
-0.886168 -0.416539 -0.416539 1 1 0
-0.888133 -0.416639 -0.416639 1 1 0
-0.890098 -0.416739 -0.416739 1 1 0
-0.892063 -0.416838 -0.416838 1 1 0
-0.894029 -0.416937 -0.416937 1 1 0
-0.895995 -0.417036 -0.417036 1 1 0
-0.89796 -0.417135 -0.417135 1 1 0
-0.899926 -0.417234 -0.417234 1 1 0
-0.901893 -0.417332 -0.417332 1 1 0
-0.903859 -0.41743 -0.41743 1 1 0
-0.905826 -0.417527 -0.417527 1 1 0
-0.907792 -0.417625 -0.417625 1 1 0
-0.909759 -0.417722 -0.417722 1 1 0
-0.911726 -0.417819 -0.417819 1 1 0
-0.913694 -0.417916 -0.417916 1 1 0
-0.915661 -0.418012 -0.418012 1 1 0
-0.917629 -0.418109 -0.418109 1 1 0
-0.919597 -0.418205 -0.418205 1 1 0
-0.921565 -0.4183 -0.4183 1 1 0
-0.923533 -0.418396 -0.418396 1 1 0
-0.925501 -0.418491 -0.418491 1 1 0
-0.92747 -0.418586 -0.418586 1 1 0
-0.929438 -0.418681 -0.418681 1 1 0
-0.931407 -0.418776 -0.418776 1 1 0
-0.933376 -0.41887 -0.41887 1 1 0
-0.935345 -0.418964 -0.418964 1 1 0
-0.937315 -0.419058 -0.419058 1 1 0
-0.939284 -0.419152 -0.419152 1 1 0
-0.941254 -0.419245 -0.419245 1 1 0
-0.943224 -0.419338 -0.419338 1 1 0
-0.945193 -0.419431 -0.419431 1 1 0
-0.947164 -0.419524 -0.419524 1 1 0
-0.949134 -0.419617 -0.419617 1 1 0
-0.951104 -0.419709 -0.419709 1 1 0
-0.953075 -0.419801 -0.419801 1 1 0
-0.955046 -0.419893 -0.419893 1 1 0
-0.957016 -0.419985 -0.419985 1 1 0
-0.958987 -0.420076 -0.420076 1 1 0
-0.960959 -0.420167 -0.420167 1 1 0
-0.96293 -0.420258 -0.420258 1 1 0
-0.964901 -0.420349 -0.420349 1 1 0
-0.966873 -0.42044 -0.42044 1 1 0
-0.968845 -0.42053 -0.42053 1 1 0
-0.970817 -0.420621 -0.420621 1 1 0
-0.972789 -0.420711 -0.420711 1 1 0
-0.974761 -0.4208 -0.4208 1 1 0
-0.976733 -0.42089 -0.42089 1 1 0
-0.978706 -0.420979 -0.420979 1 1 0
-0.980678 -0.421068 -0.421068 1 1 0
-0.982651 -0.421157 -0.421157 1 1 0
-0.984624 -0.421246 -0.421246 1 1 0
-0.986597 -0.421335 -0.421335 1 1 0
-0.98857 -0.421423 -0.421423 1 1 0
-0.990543 -0.421511 -0.421511 1 1 0
-0.992517 -0.421599 -0.421599 1 1 0
-0.99449 -0.421687 -0.421687 1 1 0
-0.996464 -0.421775 -0.421775 1 1 0
-0.998438 -0.421862 -0.421862 1 1 0
-1.00041 -0.421949 -0.421949 1 1 0
-1.00239 -0.422036 -0.422036 1 1 0
-1.00436 -0.422123 -0.422123 1 1 0
-1.00633 -0.42221 -0.42221 1 1 0
-1.00831 -0.422296 -0.422296 1 1 0
-1.01028 -0.422383 -0.422383 1 1 0
-1.01226 -0.422469 -0.422469 1 1 0
-1.01423 -0.422555 -0.422555 1 1 0
-1.01621 -0.42264 -0.42264 1 1 0
-1.01818 -0.422726 -0.422726 1 1 0
-1.02016 -0.422811 -0.422811 1 1 0
-1.02213 -0.422896 -0.422896 1 1 0
-1.02411 -0.422981 -0.422981 1 1 0
-1.02608 -0.423066 -0.423066 1 1 0
-1.02806 -0.423151 -0.423151 1 1 0
-1.03003 -0.423235 -0.423235 1 1 0
-1.03201 -0.42332 -0.42332 1 1 0
-1.03399 -0.423404 -0.423404 1 1 0
-1.03596 -0.423488 -0.423488 1 1 0
-1.03794 -0.423572 -0.423572 1 1 0
-1.03991 -0.423655 -0.423655 1 1 0
-1.04189 -0.423739 -0.423739 1 1 0
-1.04387 -0.423822 -0.423822 1 1 0
-1.04584 -0.423905 -0.423905 1 1 0
-1.04782 -0.423988 -0.423988 1 1 0
-1.0498 -0.424071 -0.424071 1 1 0
-1.05177 -0.424153 -0.424153 1 1 0
-1.05375 -0.424236 -0.424236 1 1 0
-1.05573 -0.424318 -0.424318 1 1 0
-1.05771 -0.4244 -0.4244 1 1 0
-1.05968 -0.424482 -0.424482 1 1 0
-1.06166 -0.424564 -0.424564 1 1 0
-1.06364 -0.424645 -0.424645 1 1 0
0.435093 0.492603 0.492603 4 2 0
0.435135 0.493517 0.491709 4 2 0
0.435132 0.493635 0.49159 3 2 0
0.435056 0.495433 0.489774 3 2 0
0.43491 0.497221 0.48795 3 2 0
0.434694 0.498996 0.486122 3 2 0
0.434408 0.500757 0.484292 3 2 0
0.434054 0.5025 0.482463 3 2 0
0.433634 0.504227 0.480634 3 2 0
0.433148 0.505936 0.478808 3 2 0
0.4326 0.507623 0.476987 3 2 0
0.43199 0.509291 0.475172 3 2 0
0.431322 0.510937 0.473365 3 2 0
0.430597 0.512562 0.471566 3 2 0
0.429817 0.514162 0.469779 3 2 0
0.428985 0.515741 0.468001 3 2 0
0.428103 0.517293 0.466234 3 2 0
0.427174 0.518825 0.464482 3 2 0
0.426199 0.520331 0.462745 3 2 0
0.425182 0.521812 0.461019 3 2 0
0.424124 0.523272 0.459308 3 2 0
0.423027 0.524707 0.457614 3 2 0
0.421894 0.526115 0.455935 3 2 0
0.420726 0.527505 0.454273 3 2 0
0.419525 0.52887 0.452628 3 2 0
0.418294 0.53021 0.451001 3 2 0
0.417034 0.531528 0.449386 3 2 0
0.415746 0.532826 0.44779 3 2 0
0.414432 0.534099 0.446208 3 2 0
0.413094 0.535355 0.444645 3 2 0
0.411733 0.536588 0.443099 3 2 0
0.410351 0.5378 0.441569 3 2 0
0.408947 0.538988 0.440056 3 2 0
0.407525 0.540165 0.438567 3 2 0
0.406085 0.541316 0.437088 3 2 0
0.404627 0.542448 0.435622 3 2 0
0.403153 0.543563 0.434168 3 2 0
0.401664 0.544665 0.432737 3 2 0
0.400161 0.545746 0.431321 3 2 0
0.398645 0.546805 0.429917 3 2 0
0.397115 0.547854 0.428531 3 2 0
0.395574 0.548887 0.427159 3 2 0
0.394021 0.549902 0.425802 3 2 0
0.392458 0.5509 0.42446 3 2 0
0.390884 0.551882 0.423132 3 2 0
0.389301 0.552852 0.421827 3 2 0
0.387709 0.553803 0.420526 3 2 0
0.386108 0.554747 0.419239 3 2 0
0.3845 0.555677 0.417964 3 2 0
0.382884 0.556588 0.416703 3 2 0
0.38126 0.55749 0.415454 3 2 0
0.37963 0.558382 0.414214 3 2 0
0.377994 0.559259 0.41299 3 2 0
0.376351 0.560124 0.411777 3 2 0
0.374703 0.560977 0.410584 3 2 0
0.373049 0.561818 0.409397 3 2 0
0.371391 0.562647 0.408221 3 2 0
0.369727 0.563469 0.407039 3 2 0
0.368059 0.564277 0.405883 3 2 0
0.366387 0.565074 0.404738 3 2 0
0.36471 0.565866 0.403603 3 2 0
0.36303 0.566644 0.402478 3 2 0
0.361346 0.567413 0.401363 3 2 0
0.359659 0.568174 0.400262 3 2 0
0.357968 0.568926 0.399168 3 2 0
0.356275 0.569668 0.398084 3 2 0
0.354578 0.570394 0.397006 3 2 0
0.352879 0.571122 0.39594 3 2 0
0.351177 0.571841 0.394884 3 2 0
0.349473 0.572553 0.393821 3 2 0
0.347767 0.573255 0.39278 3 2 0
0.346059 0.573949 0.391747 3 2 0
0.344349 0.574635 0.390722 3 2 0
0.342636 0.575314 0.389707 3 2 0
0.340923 0.575986 0.3887 3 2 0
0.339207 0.576651 0.387687 3 2 0
0.33749 0.577309 0.386693 3 2 0
0.335772 0.57796 0.385707 3 2 0
0.334053 0.578603 0.384732 3 2 0
0.332332 0.579241 0.383755 3 2 0
0.33061 0.579872 0.382785 3 2 0
0.328888 0.580493 0.381823 3 2 0
0.327164 0.581114 0.380871 3 2 0
0.32544 0.58173 0.379926 3 2 0
0.323715 0.582341 0.37898 3 2 0
0.321989 0.582946 0.378046 3 2 0
0.320263 0.583545 0.37712 3 2 0
0.318537 0.584139 0.376198 3 2 0
0.31681 0.584728 0.375278 3 2 0
0.315082 0.585312 0.374366 3 2 0
0.313355 0.585889 0.373463 3 2 0
0.311627 0.586463 0.372561 3 2 0
0.309899 0.587032 0.371666 3 2 0
0.308172 0.587593 0.370778 3 2 0
0.306444 0.588153 0.369897 3 2 0
0.304716 0.588709 0.369023 3 2 0
0.302989 0.589264 0.368146 3 2 0
0.301261 0.589812 0.367282 3 2 0
0.299534 0.590356 0.366421 3 2 0
0.297808 0.590895 0.36556 3 2 0
0.296081 0.591431 0.364705 3 2 0
0.294356 0.591964 0.363849 3 2 0
0.29263 0.592488 0.362997 3 2 0
0.290906 0.593012 0.362155 3 2 0
0.289182 0.593534 0.361319 3 2 0
0.287458 0.594054 0.360491 3 2 0
0.285736 0.594567 0.359668 3 2 0
0.284014 0.595076 0.358848 3 2 0
0.282293 0.595583 0.358013 3 2 0
0.280573 0.596088 0.3572 3 2 0
0.278854 0.596591 0.356392 3 2 0
0.277136 0.597096 0.355585 3 2 0
0.275418 0.597592 0.354774 3 2 0
0.273703 0.598086 0.353969 3 2 0
0.271988 0.598579 0.353181 3 2 0
0.270274 0.599066 0.352381 3 2 0
0.268562 0.599551 0.351587 3 2 0
0.266851 0.600033 0.350803 3 2 0
0.265141 0.600511 0.350016 3 2 0
0.263433 0.600986 0.349234 3 2 0
0.261726 0.601448 0.348457 3 2 0
0.260021 0.601916 0.347682 3 2 0
0.258318 0.602385 0.346913 3 2 0
0.256616 0.602861 0.346145 3 2 0
0.254915 0.603323 0.345383 3 2 0
0.253217 0.603783 0.344627 3 2 0
0.25152 0.604251 0.34387 3 2 0
0.249825 0.604708 0.343122 3 2 0
0.248132 0.605161 0.342364 3 2 0
0.246441 0.605619 0.341606 3 2 0
0.244752 0.606069 0.340856 3 2 0
0.243065 0.606517 0.340112 3 2 0
0.241381 0.606964 0.339372 3 2 0
0.239698 0.607408 0.338638 3 2 0
0.238018 0.60785 0.33791 3 2 0
0.236339 0.608293 0.337182 3 2 0
0.234664 0.608731 0.336443 3 2 0
0.23299 0.609167 0.335709 3 2 0
0.231319 0.609608 0.33499 3 2 0
0.229651 0.610041 0.334277 3 2 0
0.227985 0.610471 0.333548 3 2 0
0.226322 0.610907 0.332821 3 2 0
0.224661 0.611336 0.332111 3 2 0
0.223004 0.611763 0.331407 3 2 0
0.221349 0.61219 0.33069 3 2 0
0.219697 0.612615 0.329991 3 2 0
0.218048 0.613037 0.329277 3 2 0
0.216402 0.613459 0.328576 3 2 0
0.214759 0.613879 0.327878 3 2 0
0.213119 0.614298 0.32717 3 2 0
0.211482 0.614715 0.326478 3 2 0
0.209849 0.615131 0.325776 3 2 0
0.208219 0.615545 0.32508 3 2 0
0.206592 0.615957 0.324392 3 2 0
0.204969 0.616369 0.32371 3 2 0
0.20335 0.61678 0.323034 3 2 0
0.201734 0.617189 0.322353 3 2 0
0.200121 0.617596 0.321661 3 2 0
0.198513 0.618 0.320976 3 2 0
0.196908 0.618405 0.320315 3 2 0
0.195307 0.618806 0.319637 3 2 0
0.19371 0.619204 0.318956 3 2 0
0.192118 0.619607 0.318299 3 2 0
0.190529 0.620001 0.317626 3 2 0
0.188944 0.620393 0.316951 3 2 0
0.187364 0.620793 0.316289 3 2 0
0.185788 0.62119 0.315637 3 2 0
0.184217 0.621591 0.314977 3 2 0
0.18265 0.621975 0.314303 3 2 0
0.181088 0.622375 0.313653 3 2 0
0.17953 0.622773 0.313009 3 2 0
0.177977 0.623152 0.312342 3 2 0
0.176429 0.623548 0.311693 3 2 0
0.174886 0.623942 0.31105 3 2 0
0.173347 0.624321 0.310401 3 2 0
0.171814 0.624714 0.309758 3 2 0
0.170286 0.625104 0.30912 3 2 0
0.168763 0.625469 0.308499 3 2 0
0.167246 0.62586 0.307858 3 2 0
0.165734 0.626247 0.307214 3 2 0
0.164227 0.626626 0.30658 3 2 0
0.162726 0.62701 0.305946 3 2 0
0.16123 0.627392 0.305319 3 2 0
0.159741 0.627766 0.304694 3 2 0
0.158257 0.628145 0.304076 3 2 0
0.156779 0.62852 0.303466 3 2 0
0.155307 0.628892 0.302833 3 2 0
0.153841 0.629266 0.302212 3 2 0
0.152381 0.629636 0.301598 3 2 0
0.150927 0.630006 0.301005 3 2 0
0.14948 0.630374 0.300401 3 2 0
0.148039 0.630738 0.29978 3 2 0
0.146604 0.631102 0.299168 3 2 0
0.145176 0.631461 0.298576 3 2 0
0.143755 0.631815 0.297989 3 2 0
0.142341 0.632175 0.29739 3 2 0
0.140933 0.632541 0.296778 3 2 0
0.139532 0.632908 0.296175 3 2 0
0.138138 0.633267 0.295602 3 2 0
0.136751 0.633629 0.295 3 2 0
0.135371 0.633988 0.294405 3 2 0
0.133999 0.634342 0.29383 3 2 0
0.132633 0.634692 0.29324 3 2 0
0.131275 0.635037 0.292658 3 2 0
0.129925 0.635388 0.292092 3 2 0
0.128582 0.635742 0.29151 3 2 0
0.127246 0.636092 0.290936 3 2 0
0.125918 0.636436 0.29037 3 2 0
0.124598 0.636776 0.289812 3 2 0
0.123285 0.637111 0.289262 3 2 0
0.121981 0.637459 0.288676 3 2 0
0.120684 0.637791 0.288119 3 2 0
0.119395 0.638118 0.28757 3 2 0
0.118114 0.638476 0.287015 3 2 0
0.116842 0.638805 0.286477 3 2 0
0.115577 0.639129 0.285947 3 2 0
0.11432 0.639476 0.285369 3 2 0
0.113072 0.6398 0.284823 3 2 0
0.111832 0.64012 0.284286 3 2 0
0.110601 0.640456 0.283765 3 2 0
0.109377 0.640773 0.283219 3 2 0
0.108163 0.641084 0.282682 3 2 0
0.106956 0.641413 0.282172 3 2 0
0.105758 0.641719 0.281634 3 2 0
0.104569 0.642033 0.281106 3 2 0
0.103388 0.642358 0.280587 3 2 0
0.102216 0.642656 0.280071 3 2 0
0.101053 0.642979 0.279564 3 2 0
0.099898 0.64329 0.279057 3 2 0
0.0987519 0.643582 0.278565 3 2 0
0.0976145 0.643903 0.278082 3 2 0
0.0964858 0.644201 0.277556 3 2 0
0.0953659 0.644499 0.277079 3 2 0
0.0942548 0.644812 0.276567 3 2 0
0.0931524 0.64509 0.276066 3 2 0
0.0920589 0.645398 0.275596 3 2 0
0.0909742 0.645703 0.275091 3 2 0
0.0898982 0.64597 0.274619 3 2 0
0.0888311 0.646274 0.274129 3 2 0
0.0877729 0.646572 0.273635 3 2 0
0.0867234 0.646827 0.273189 3 2 0
0.0856828 0.647123 0.272697 3 2 0
0.084651 0.647415 0.272216 3 2 0
0.083628 0.647686 0.271762 3 2 0
0.0826138 0.647971 0.271319 3 2 0
0.0816084 0.64825 0.270846 3 2 0
0.0806117 0.648486 0.270369 3 2 0
0.0796238 0.64877 0.269925 3 2 0
0.0786447 0.649047 0.269491 3 2 0
0.0776743 0.649294 0.269051 3 2 0
0.0767125 0.649568 0.268589 3 2 0
0.0757595 0.649835 0.268138 3 2 0
0.0748151 0.65008 0.267697 3 2 0
0.0738793 0.650343 0.267269 3 2 0
0.0729521 0.650598 0.26685 3 2 0
0.0720335 0.650845 0.266405 3 2 0
0.0711234 0.651092 0.26598 3 2 0
0.0702218 0.651331 0.265564 3 2 0
0.0693287 0.651576 0.265143 3 2 0
0.068444 0.651813 0.264723 3 2 0
0.0675676 0.652043 0.264314 3 2 0
0.0666996 0.652282 0.263924 3 2 0
0.0658399 0.652512 0.263503 3 2 0
0.0649885 0.652733 0.263093 3 2 0
0.0641453 0.652965 0.262707 3 2 0
0.0633102 0.653186 0.262299 3 2 0
0.0624833 0.653397 0.261902 3 2 0
0.0616645 0.653623 0.261511 3 2 0
0.0608536 0.65383 0.261125 3 2 0
0.0600508 0.654028 0.260748 3 2 0
0.0592558 0.654254 0.260368 3 2 0
0.0584688 0.654449 0.260005 3 2 0
0.0576896 0.654635 0.259621 3 2 0
0.0569181 0.654857 0.259262 3 2 0
0.0561544 0.655039 0.258874 3 2 0
0.0553983 0.65522 0.258497 3 2 0
0.0546498 0.655428 0.258132 3 2 0
0.0539089 0.6556 0.25778 3 2 0
0.0531754 0.655807 0.257437 3 2 0
0.0524494 0.655986 0.257057 3 2 0
0.0517308 0.656156 0.256712 3 2 0
0.0510196 0.656354 0.256377 3 2 0
0.0503155 0.656506 0.256009 3 2 0
0.0496187 0.656699 0.255668 3 2 0
0.0489291 0.656884 0.255337 3 2 0
0.0482465 0.657016 0.254988 3 2 0
0.047571 0.657199 0.254657 3 2 0
0.0469025 0.657376 0.254336 3 2 0
0.0462408 0.657523 0.254005 3 2 0
0.0455861 0.657693 0.253695 3 2 0
0.0449381 0.657855 0.253358 3 2 0
0.0442969 0.657993 0.253047 3 2 0
0.0436624 0.658151 0.252713 3 2 0
0.0430345 0.6583 0.25239 3 2 0
0.0424131 0.658434 0.252106 3 2 0
0.0417983 0.65858 0.25178 3 2 0
0.0411899 0.658717 0.251462 3 2 0
0.0405879 0.658844 0.251184 3 2 0
0.0399923 0.658982 0.250865 3 2 0
0.0394029 0.65911 0.250556 3 2 0
0.0388198 0.659225 0.250283 3 2 0
0.0382428 0.659357 0.249978 3 2 0
0.0376719 0.659479 0.249675 3 2 0
0.0371071 0.659588 0.249384 3 2 0
0.0365483 0.659709 0.249097 3 2 0
0.0359954 0.659821 0.248819 3 2 0
0.0354484 0.659918 0.248545 3 2 0
0.0349072 0.660035 0.248283 3 2 0
0.0343718 0.66014 0.24799 3 2 0
0.0338422 0.660229 0.247714 3 2 0
0.0333181 0.660337 0.247434 3 2 0
0.0327997 0.660434 0.247164 3 2 0
0.0322869 0.660518 0.246921 3 2 0
0.0317796 0.660616 0.246652 3 2 0
0.0312777 0.660703 0.246378 3 2 0
0.0307812 0.660786 0.246129 3 2 0
0.0302901 0.66087 0.245861 3 2 0
0.0298043 0.660943 0.245603 3 2 0
0.0293237 0.661025 0.245357 3 2 0
0.0288484 0.661091 0.245102 3 2 0
0.0283782 0.661145 0.244855 3 2 0
0.0279131 0.661234 0.24461 3 2 0
0.027453 0.661284 0.244373 3 2 0
0.026998 0.661321 0.244144 3 2 0
0.0265479 0.661423 0.243892 3 2 0
0.0261027 0.661463 0.243667 3 2 0
0.0256625 0.661493 0.243434 3 2 0
0.025227 0.661597 0.243199 3 2 0
0.0247963 0.661636 0.242976 3 2 0
0.0243703 0.661662 0.242737 3 2 0
0.023949 0.661745 0.242512 3 2 0
0.0235324 0.661782 0.242301 3 2 0
0.0231204 0.661807 0.242076 3 2 0
0.0227129 0.661856 0.241862 3 2 0
0.02231 0.66187 0.241634 3 2 0
0.0219115 0.661898 0.241415 3 2 0
0.0215174 0.661957 0.241208 3 2 0
0.0211278 0.661963 0.240993 3 2 0
0.0207425 0.661989 0.240786 3 2 0
0.0203615 0.662046 0.240584 3 2 0
0.0199848 0.662049 0.240391 3 2 0
0.0196123 0.662045 0.240189 3 2 0
0.0192441 0.662085 0.239975 3 2 0
0.0188799 0.662084 0.239785 3 2 0
0.01852 0.662125 0.239599 3 2 0
0.0181641 0.662112 0.239387 3 2 0
0.0178122 0.662148 0.239194 3 2 0
0.0174644 0.662172 0.239009 3 2 0
0.0171205 0.662163 0.238827 3 2 0
0.0167806 0.662182 0.238632 3 2 0
0.0164446 0.662187 0.238445 3 2 0
0.0161125 0.662182 0.238269 3 2 0
0.0157842 0.662185 0.238083 3 2 0
0.0154597 0.662174 0.237904 3 2 0
0.015139 0.662176 0.237727 3 2 0
0.0148221 0.662161 0.237554 3 2 0
0.0145089 0.662131 0.237388 3 2 0
0.0141993 0.662144 0.237208 3 2 0
0.0138934 0.662115 0.237045 3 2 0
0.0135911 0.662069 0.236889 3 2 0
0.0132924 0.662095 0.236711 3 2 0
0.0129973 0.662055 0.236559 3 2 0
0.0127057 0.662013 0.236389 3 2 0
0.0124176 0.662035 0.236238 3 2 0
0.012133 0.661987 0.236067 3 2 0
0.0118518 0.661951 0.235901 3 2 0
0.0115741 0.661958 0.235744 3 2 0
0.0112997 0.661902 0.23559 3 2 0
0.0110287 0.66188 0.235443 3 2 0
0.010761 0.661873 0.235299 3 2 0
0.0104967 0.661811 0.23514 3 2 0
0.0102356 0.661789 0.234989 3 2 0
0.00997776 0.661792 0.234846 3 2 0
0.00972317 0.661743 0.234699 3 2 0
0.00947179 0.661677 0.23456 3 2 0
0.00922358 0.661683 0.234415 3 2 0
0.00897853 0.661627 0.234279 3 2 0
0.0087366 0.661553 0.23415 3 2 0
0.00849779 0.66156 0.234003 3 2 0
0.00826205 0.661491 0.233866 3 2 0
0.00802937 0.661441 0.233736 3 2 0
0.00779972 0.661424 0.233604 3 2 0
0.00757309 0.661344 0.23347 3 2 0
0.00734944 0.661327 0.233343 3 2 0
0.00712875 0.661273 0.233215 3 2 0
0.006911 0.661223 0.233095 3 2 0
0.00669617 0.661207 0.232979 3 2 0
0.00648424 0.661113 0.232842 3 2 0
0.00627517 0.661103 0.232727 3 2 0
0.00606896 0.661076 0.232611 3 2 0
0.00586557 0.660995 0.232494 3 2 0
0.00566499 0.660973 0.232366 3 2 0
0.00546719 0.660933 0.232245 3 2 0
0.00527215 0.660868 0.232129 3 2 0
0.00507986 0.660833 0.232017 3 2 0
0.00489028 0.660778 0.231911 3 2 0
0.0047034 0.660723 0.231802 3 2 0
0.0045192 0.660682 0.231685 3 2 0
0.00433765 0.660621 0.231574 3 2 0
0.00415873 0.660573 0.231468 3 2 0
0.00398243 0.660528 0.231368 3 2 0
0.00380872 0.660462 0.231274 3 2 0
0.00363758 0.660422 0.231162 3 2 0
0.00346899 0.660373 0.231071 3 2 0
0.00330292 0.660302 0.23096 3 2 0
0.00313937 0.660271 0.230852 3 2 0
0.00297831 0.660212 0.230758 3 2 0
0.00281972 0.66013 0.23067 3 2 0
0.00266357 0.660117 0.230562 3 2 0
0.00250985 0.660062 0.230475 3 2 0
0.00235854 0.659983 0.230387 3 2 0
0.00220961 0.659959 0.23028 3 2 0
0.00206305 0.659916 0.230194 3 2 0
0.00191884 0.65985 0.230113 3 2 0
0.00177695 0.659797 0.230012 3 2 0
0.00163737 0.659767 0.229932 3 2 0
0.00150008 0.659713 0.229842 3 2 0
0.00136505 0.659645 0.229754 3 2 0
0.00123227 0.65962 0.229663 3 2 0
0.00110171 0.659571 0.229578 3 2 0
0.000973364 0.659496 0.229496 3 2 0
0.000847202 0.659476 0.229418 3 2 0
0.000723207 0.659432 0.229345 3 2 0
0.000601358 0.659367 0.229264 3 2 0
0.000481637 0.659342 0.229184 3 2 0
0.000364024 0.659292 0.229101 3 2 0
0.000248498 0.659236 0.229029 3 2 0
0.000135041 0.65921 0.228961 3 2 0
2.36327e-05 0.659158 0.228878 3 2 0
-8.57465e-05 0.659116 0.228809 3 2 0
-0.000193116 0.659083 0.228731 3 2 0
-0.000298496 0.659022 0.228657 3 2 0
-0.000401904 0.659001 0.228587 3 2 0
-0.000503361 0.658951 0.228522 3 2 0
-0.000602887 0.65887 0.22846 3 2 0
-0.0007005 0.658882 0.22839 3 2 0
-0.00079622 0.658835 0.228318 3 2 0
-0.000890066 0.658756 0.22825 3 2 0
-0.000982056 0.65877 0.228195 3 2 0
-0.00107221 0.658722 0.228129 3 2 0
-0.00116055 0.658641 0.228061 3 2 0
-0.00124709 0.658659 0.228004 3 2 0
-0.00133185 0.658623 0.227939 3 2 0
-0.00141486 0.658554 0.227878 3 2 0
-0.00149612 0.65855 0.227823 3 2 0
-0.00157566 0.658528 0.227762 3 2 0
-0.00165349 0.658473 0.227705 3 2 0
-0.00172965 0.65844 0.227649 3 2 0
-0.00180413 0.658434 0.227594 3 2 0
-0.00187698 0.658394 0.227543 3 2 0
-0.00194819 0.65833 0.227488 3 2 0
-0.00201779 0.658341 0.227441 3 2 0
-0.0020858 0.658316 0.227388 3 2 0
-0.00215224 0.658231 0.227338 3 2 0
-0.00221712 0.658253 0.227288 3 2 0
-0.00228047 0.658238 0.227235 3 2 0
-0.0023423 0.658126 0.227186 3 2 0
-0.00240263 0.658163 0.227138 3 2 0
-0.00246148 0.658164 0.227092 3 2 0
-0.00251887 0.658097 0.227046 3 2 0
-0.00257481 0.658051 0.227003 3 2 0
-0.00262933 0.658081 0.226962 3 2 0
-0.00268243 0.658057 0.226915 3 2 0
-0.00273415 0.657975 0.226874 3 2 0
-0.00278449 0.657991 0.226836 3 2 0
-0.00283348 0.657983 0.226791 3 2 0
-0.00288113 0.657897 0.226752 3 2 0
-0.00292746 0.657945 0.226716 3 2 0
-0.00297249 0.657899 0.226679 3 2 0
-0.00301624 0.657875 0.22664 3 2 0
-0.00305873 0.657908 0.226602 3 2 0
-0.00309996 0.657838 0.226566 3 2 0
-0.00313997 0.657829 0.226533 3 2 0
-0.00317876 0.65786 0.226502 3 2 0
-0.00321637 0.657797 0.226467 3 2 0
-0.00325279 0.657774 0.226433 3 2 0
-0.00328806 0.657812 0.226401 3 2 0
-0.00332218 0.657733 0.226371 3 2 0
-0.00335519 0.65775 0.226343 3 2 0
-0.00338709 0.657777 0.226316 3 2 0
-0.0034179 0.657709 0.226286 3 2 0
-0.00344764 0.657748 0.226256 3 2 0
-0.00347634 0.657733 0.226229 3 2 0
-0.003504 0.657729 0.226203 3 2 0
-0.00353065 0.6577 0.226178 3 2 0
-0.0035563 0.657609 0.226154 3 2 0
-0.00358097 0.657654 0.22613 3 2 0
-0.00360468 0.657596 0.226106 3 2 0
-0.00362746 0.657661 0.226084 3 2 0
-0.0036493 0.657636 0.226063 3 2 0
-0.00367025 0.657548 0.226041 3 2 0
-0.00369031 0.657627 0.226021 3 2 0
-0.0037095 0.657644 0.226002 3 2 0
-0.00372784 0.657597 0.225983 3 2 0
-0.00374535 0.657504 0.225965 3 2 0
-0.00376206 0.657623 0.225947 3 2 0
-0.00377797 0.657578 0.225931 3 2 0
-0.00379311 0.657479 0.225915 3 2 0
-0.00380749 0.657522 0.2259 3 2 0
-0.00382114 0.657544 0.225884 3 2 0
-0.00383408 0.657591 0.225869 3 2 0
-0.00384632 0.657524 0.225856 3 2 0
-0.00385789 0.65741 0.225843 3 2 0
-0.0038688 0.657529 0.225831 3 2 0
-0.00387908 0.657467 0.225819 3 2 0
-0.00388874 0.657488 0.225807 3 2 0
-0.00389781 0.657559 0.225797 3 2 0
-0.0039063 0.657548 0.225787 3 2 0
-0.00391424 0.65755 0.225777 3 2 0
-0.00392165 0.657458 0.225769 3 2 0
-0.00392854 0.657471 0.22576 3 2 0
-0.00393493 0.657545 0.225752 3 2 0
-0.00394086 0.657526 0.225745 3 2 0
-0.00394633 0.657535 0.225738 3 2 0
-0.00395138 0.657529 0.225731 3 2 0
-0.00395601 0.657414 0.225725 3 2 0
-0.00396025 0.657451 0.22572 3 2 0
-0.00396412 0.657533 0.225714 3 2 0
-0.00396765 0.657509 0.225709 3 2 0
-0.00397084 0.657486 0.225705 3 2 0
-0.00397372 0.657318 0.225701 3 2 0
-0.00397632 0.657479 0.225697 4 2 0
-0.00397864 0.657395 0.225694 4 2 0
-0.00398071 0.657515 0.225691 4 2 0
-0.00398255 0.657515 0.225688 4 2 0
-0.00398417 0.657475 0.225686 4 2 0
-0.00398559 0.657438 0.225683 4 2 0
-0.00398684 0.657527 0.225681 4 2 0
-0.00398792 0.657441 0.22568 4 2 0
-0.00398885 0.657484 0.225678 4 2 0
-0.00398964 0.657524 0.225677 4 2 0
-0.00399032 0.6575 0.225676 4 2 0
